0.52460557222366333008 0.67509841918945312500 -0.02141935378313060065
0.52413409948348999023 0.62825679779052734375 -0.03496032953262320081
0.52475744485855102539 0.64157134294509887695 -0.01918658800423140090
0.51886332035064697266 0.58971804380416870117 -0.02407063543796529939
0.52397513389587402344 0.61580574512481689453 -0.03673021867871280322
0.52403467893600463867 0.60024744272232055664 -0.03341972082853310322
0.52443987131118774414 0.56313925981521606445 -0.01387669052928680070
0.48113393783569330386 0.56121373176574707031 0.01502562593668690070
0.52422201633453369141 0.53476303815841674805 -0.00836061965674160003
0.52394109964370727539 0.51876890659332275391 -0.00889095105230799931
0.52351230382919311523 0.46214404702186578922 0.00167868647258720004
0.52479237318038940430 0.68026959896087646484 -0.02087830752134319998
0.52500194311141967773 0.68545985221862792969 -0.01878393255174160004
0.52522164583206176758 0.68900060653686523438 -0.01567514427006240149
0.52528178691864013672 0.68881225585937500000 -0.01573061011731620093
0.52546066045761108398 0.69498443603515625000 -0.01674733124673359955
0.52565920352935791016 0.70245307683944702148 -0.01821269653737540156
0.52591353654861450195 0.71040421724319458008 -0.01730430498719209842
0.52591067552566528320 0.71922945976257324219 -0.01096234284341329919
0.52443301677703857422 0.63483446836471557617 -0.03185238689184179822
0.51911115646362304688 0.63545656204223632812 -0.02271317876875399849
0.45568701624870300293 0.52318251132965087891 0.05080515518784520235
0.49753662943840021304 0.57263016700744628906 0.00670445337891570001
0.49166899919509887695 0.57353347539901733398 0.00750427134335040005
0.48591044545173639468 0.57317113876342773438 0.00969853252172469919
0.47839206457138061523 0.56632959842681884766 0.01591698080301279933
0.50262504816055297852 0.57025212049484252930 0.00713126314803949959
0.48827430605888361148 0.53888589143753051758 0.00583105487748980002
0.49519976973533630371 0.54009819030761718750 0.00542648788541550027
0.48191943764686578922 0.54120862483978271484 0.00823001004755490040
0.47793877124786371402 0.54604983329772949219 0.01104309223592279954
0.47279846668243408203 0.57540291547775268555 0.01914335228502750050
0.50213032960891723633 0.73899114131927490234 -0.00356650212779639980
0.47898188233375549316 0.55806386470794677734 0.01742994226515289999
0.45285364985465997867 0.57462710142135620117 0.05042017251253119725
0.46509134769439697266 0.56781929731369018555 0.02672749571502200036
0.49370816349983209781 0.62377047538757324219 -0.00205236929468809995
0.51766073703765869141 0.67258018255233764648 -0.01984935067594049973
0.51906245946884155273 0.68551069498062133789 -0.01736490614712229985
0.51123839616775512695 0.67827546596527099609 -0.01576502993702880162
0.50705569982528686523 0.68450140953063964844 -0.01119416765868659971
0.51402902603149414062 0.68697744607925415039 -0.01456634793430560022
0.50998979806900024414 0.68926107883453369141 -0.01028774958103889983
0.49819046258926391602 0.70245397090911865234 -0.00224061962217089999
0.51893651485443115234 0.62828713655471801758 -0.03408669680356969656
0.51785051822662353516 0.61649215221405029297 -0.03560402244329449739
0.46839070320129388980 0.53836071491241455078 0.01459168922156089954
0.50637626647949218750 0.59227311611175537109 -0.00228157243691379978
0.50547361373901367188 0.62815970182418823242 -0.01685841195285319935
0.50496423244476318359 0.62202399969100952148 -0.01463497057557099947
0.47445914149284357242 0.62472039461135864258 0.00753361638635390019
0.51831865310668945312 0.60201227664947509766 -0.03093432448804369836
0.48298186063766479492 0.52497279644012451172 0.00246000965125849980
0.47436246275901788882 0.52943640947341918945 0.00811103638261550033
0.46122476458549499512 0.50042939186096191406 0.03813629969954489968
0.51052606105804443359 0.53477382659912109375 -0.00527916569262739960
0.50124001502990722656 0.54534769058227539062 0.00690277898684140030
0.49351897835731500797 0.69184380769729614258 0.00033831817563620002
0.46131795644760131836 0.69217920303344726562 0.06115878745913500003
0.51066797971725463867 0.63468188047409057617 -0.01500924210995429990
0.51561021804809570312 0.63756185770034790039 -0.01648040488362309888
0.50232005119323730469 0.69481754302978515625 -0.00105731829535210000
0.50377833843231201172 0.69433557987213134766 -0.00320249958895139995
0.47066158056259149722 0.52235907316207885742 0.01203620433807369924
0.50557893514633178711 0.63407313823699951172 -0.01353755034506320086
0.49474549293518060855 0.52579724788665771484 -0.00216633547097439981
0.49347704648971557617 0.51627010107040405273 -0.00291637214831999992
0.48650118708610529117 0.46985495090484619141 0.01203387789428229937
0.46536490321159357242 0.51029694080352783203 0.02319531701505180010
0.49017202854156488590 0.49092578887939447574 0.00421960791572920015
0.46426916122436517886 0.53341686725616455078 0.02098429948091500019
0.45946371555328369141 0.52873915433883666992 0.03494614735245699794
0.51822745800018310547 0.67978751659393310547 -0.01940698549151419899
0.51264476776123046875 0.68304568529129028320 -0.01557360123842949952
0.50847005844116210938 0.68699175119400024414 -0.01137770991772409958
0.51225632429122924805 0.63682854175567626953 -0.01389866974204769998
0.50307947397232055664 0.69460952281951904297 -0.00223664101213210016
0.50556510686874389648 0.69589728116989135742 -0.00674646114930510001
0.50458431243896484375 0.69404041767120361328 -0.00348590803332620011
0.51294589042663574219 0.62946408987045288086 -0.02384264022111889925
0.51105487346649169922 0.69073343276977539062 -0.00921068806201210018
0.51504349708557128906 0.68942195177078247070 -0.01199990883469580043
0.51978671550750732422 0.68891841173171997070 -0.01446832064539189944
0.51775562763214111328 0.71918261051177978516 -0.01038169860839839934
0.51857697963714599609 0.70998251438140869141 -0.01647111959755419991
0.51869803667068481445 0.70197820663452148438 -0.01712708361446850167
0.51909840106964111328 0.69458222389221191406 -0.01548501756042239969
0.51978528499603271484 0.68881350755691528320 -0.01447817031294099978
0.51097863912582397461 0.69082629680633544922 -0.00918196421116589979
0.50974166393280029297 0.69377166032791137695 -0.01027841400355099938
0.50844860076904296875 0.69753897190093994141 -0.01139682903885839982
0.50740736722946166992 0.70197653770446777344 -0.01032591983675949961
0.49986147880554199219 0.66815024614334106445 -0.00811376422643659938
0.45431900024414062500 0.63132053613662719727 0.07504614442586890477
0.52463674545288085938 0.63792181015014648438 -0.02354187518358229897
0.50795090198516845703 0.69226515293121337891 -0.00589429773390289999
0.50677263736724853516 0.69398152828216552734 -0.00669736135750999967
0.51732355356216430664 0.64202231168746948242 -0.01704415306448929870
0.50814926624298095703 0.64144694805145263672 -0.00939494185149659933
0.51651883125305175781 0.63982814550399780273 -0.01690792664885519894
0.49962916970252990723 0.60015803575515747070 0.00003107434531557374
0.48911738395690917969 0.60906916856765747070 0.00224410858936599988
0.50419330596923828125 0.62793207168579101562 -0.01112624444067470027
0.47099196910858148746 0.48204958438873291016 0.02420252747833720117
0.47508984804153442383 0.49702411890029907227 0.01325879711657759925
0.48059320449829101562 0.51583158969879150391 0.00440163630992169985
0.50306093692779541016 0.70895874500274658203 -0.00578520121052859999
0.50825214385986328125 0.51897907257080078125 -0.00707761012017719959
0.50583493709564208984 0.48963552713394159488 -0.00151648302562529995
0.50345963239669799805 0.46402227878570551090 0.00430517783388489981
0.48107144236564630679 0.57082724571228027344 0.01291851047426459918
0.46584144234657287598 0.58515387773513793945 0.02283872105181209908
0.50601029396057128906 0.56769448518753051758 0.00803627166897049987
0.47168594598770141602 0.55222570896148681641 0.01730650849640360048
0.51075989007949829102 0.58363801240921020508 -0.00459190318360920037
0.50874692201614379883 0.62255185842514038086 -0.02330827340483659915
0.45795798301696777344 0.59627014398574829102 0.03014496713876720080
0.47066208720207208804 0.59354388713836669922 0.01609390787780280024
0.47908413410186767578 0.59775441884994506836 0.00925400853157039988
0.49095353484153747559 0.59505301713943481445 0.00567246088758109959
0.49945920705795288086 0.58961474895477294922 0.00387794454582029990
0.50583291053771972656 0.58377051353454589844 0.00186679477337740006
0.51854425668716430664 0.56642591953277587891 -0.01101809553802009928
0.45952719449996948242 0.62231385707855224609 0.02693515457212920100
0.46627187728881830386 0.55163329839706420898 0.02098949626088139966
0.52129089832305908203 0.63455671072006225586 -0.03124212101101870101
0.50695663690567016602 0.60381215810775756836 -0.00560806365683670042
0.45209407806396478824 0.57612794637680053711 0.07327908277511589741
0.51068210601806640625 0.57727003097534179688 0.00101859681308260003
0.50393271446228027344 0.62929570674896240234 -0.00453289272263639968
0.47595307230949401855 0.55921947956085205078 0.01880066096782680163
0.50856739282608032227 0.61518144607543945312 -0.02052396908402440157
0.45671802759170532227 0.66125047206878662109 0.07001192122697830200
0.50597906112670898438 0.56354320049285888672 0.01001957990229120077
0.51320403814315795898 0.60711270570755004883 -0.02689860574901100157
0.47432023286819458008 0.71664476394653320312 0.02329771034419529999
0.47484785318374628238 0.73189651966094970703 0.03463771566748610059
0.45397239923477167300 0.62705379724502563477 0.05100425332784649934
0.46663796901702880859 0.70160639286041259766 0.03301932662725440282
0.45608592033386230469 0.54989719390869140625 0.04475120455026620342
0.50050598382949829102 0.75130206346511840820 -0.00026334138237869999
0.52223151922225952148 0.63762974739074707031 -0.02294029667973510045
0.50138580799102783203 0.61358177661895751953 -0.00330634834244840012
0.45924052596092218570 0.57081276178359985352 0.03376442939043040187
0.48656770586967468262 0.56535440683364868164 0.01056693401187649983
0.49141809344291681461 0.56638979911804199219 0.00859523285180329930
0.50443512201309204102 0.69824963808059692383 -0.00561895454302429979
0.46144434809684747867 0.64736855030059814453 0.02741399221122260005
0.51275980472564697266 0.76744508743286132812 0.00037572486326090002
0.49287167191505432129 0.75447964668273925781 0.01520319283008570062
0.48433962464332580566 0.74552148580551147461 0.02365513332188120058
0.52365416288375854492 0.48956832289695739746 -0.00398407829925410007
0.52688348293304443359 0.76937031745910644531 -0.00241301860660310006
0.49628269672393798828 0.56585961580276489258 0.00800308678299179940
0.50100421905517578125 0.56471300125122070312 0.00871258322149509948
0.50426179170608520508 0.56428718566894531250 0.00996910501271480037
0.46126836538314819336 0.54977178573608398438 0.02830127626657480064
0.50043499469757080078 0.55393677949905395508 0.00807808060199020038
0.49520224332809448242 0.55005359649658203125 0.00727833807468409970
0.48998352885246271304 0.54931759834289550781 0.00790687371045349988
0.48492375016212457828 0.55109566450119018555 0.00980051606893530061
0.48194622993469238281 0.55386137962341308594 0.01213103625923389953
0.45297765731811517886 0.54701119661331176758 0.06381544470787040013
0.48333013057708740234 0.56338310241699218750 0.01296250056475400057
0.52490109205245971680 0.65188843011856079102 -0.01822840049862859899
0.50561887025833129883 0.65974980592727661133 -0.01111542060971260071
0.51045125722885131836 0.63234692811965942383 -0.01723679713904850003
0.51674288511276245117 0.65336227416992187500 -0.01727406308054919848
0.52450299263000488281 0.54939103126525878906 -0.00847054738551369923
0.48277792334556579590 0.73085665702819824219 0.01534509751945730034
0.49123525619506830386 0.74129831790924072266 0.00783482100814580050
0.51216912269592285156 0.75857168436050415039 -0.00751178804785009990
0.46767199039459228516 0.71576088666915893555 0.04830252006649970314
0.50423365831375122070 0.55970287322998046875 0.00922117661684749949
0.51454985141754150391 0.58548939228057861328 -0.01384668052196500083
0.52649772167205810547 0.75999140739440917969 -0.01011186279356469930
0.50199723243713378906 0.76199877262115478516 0.00652264151722189989
0.45646286010742187500 0.65447294712066650391 0.04821713268756860210
0.51498836278915405273 0.68945360183715820312 -0.01200342830270519946
0.51377743482589721680 0.69406652450561523438 -0.01315102353692050065
0.51286327838897705078 0.69981068372726440430 -0.01440533995628349995
0.51228892803192138672 0.70681327581405639648 -0.01370508968830099969
0.50948041677474975586 0.71492016315460205078 -0.00899736210703840078
0.50674355030059814453 0.69172626733779907227 -0.00653393333777780010
0.50533938407897949219 0.69092434644699096680 -0.00638686446473000005
0.50412636995315551758 0.68983346223831176758 -0.00613256497308609962
0.49560534954071039371 0.67926847934722900391 -0.00385880470275870016
0.47015845775604248047 0.65228360891342163086 0.01310659013688559964
0.51478606462478637695 0.57404100894927978516 -0.00732484739273780040
0.51055014133453369141 0.55398929119110107422 0.00507821980863799958
0.50656163692474365234 0.55549919605255126953 0.00798481795936819942
0.50810092687606811523 0.69225955009460449219 -0.00588368345051999957
0.46972811222076410465 0.68280911445617675781 0.02126717381179329958
0.51641279458999633789 0.55336588621139526367 -0.00355641520582129994
0.50558912754058837891 0.72685837745666503906 -0.00571897905319920016
0.52418971061706542969 0.58746540546417236328 -0.02667859196662900056
0.51860952377319335938 0.57852238416671752930 -0.01818838343024250029
0.52431428432464599609 0.57555592060089111328 -0.02001350931823250162
0.51044857501983642578 0.60509628057479858398 -0.01437205914407960021
0.52623254060745239258 0.74710911512374877930 -0.01298250909894699961
0.52605432271957397461 0.73216950893402099609 -0.01185212377458809939
0.51550507545471191406 0.73194289207458496094 -0.01001357845962039944
0.49115544557571411133 0.70748060941696166992 0.00195563444867730011
0.49874344468116760254 0.63976144790649414062 -0.00327610317617649987
0.49770084023475641422 0.71896761655807495117 -0.00184600800275800010
0.48387697339057922363 0.63918763399124145508 0.00029411190189420001
0.49293762445449829102 0.65275096893310546875 -0.00279513862915330017
0.47896513342857360840 0.66016626358032226562 0.00467623677104709971
0.51316708326339721680 0.74625074863433837891 -0.01027389988303179999
0.50702613592147827148 0.61291861534118652344 -0.00982724130153649934
0.48514974117279052734 0.71678394079208374023 0.00820938125252720051
0.49346333742141718082 0.72869074344635009766 0.00291693629696960013
0.48620074987411499023 0.69314241409301757812 0.00395621499046680015
0.46351027488708490543 0.66860222816467285156 0.02832342498004429901
0.47775074839591979980 0.69525909423828125000 0.01102444995194670069
0.46009084582328790836 0.67953455448150634766 0.04355112835764880092
0.48837849497795099429 0.67018425464630126953 -0.00035209892666890000
0.51094633340835571289 0.59443366527557373047 -0.00941679906100030030
0.51090294122695922852 0.62758123874664306641 -0.02494430169463150021
0.50758081674575805664 0.63180714845657348633 -0.01795220375061029952
0.51290512084960937500 0.61883628368377685547 -0.02973036281764500008
0.50547045469284057617 0.54310965538024902344 0.00369983958080410003
0.49522843956947321109 0.53525382280349731445 0.00330661400221280008
0.48628982901573181152 0.53402531147003173828 0.00438022706657640020
0.47894284129142761230 0.53684026002883911133 0.00744196772575370005
0.47400894761085510254 0.54278838634490966797 0.01179527118802069924
0.47123563289642328433 0.56349927186965942383 0.02161367796361440136
0.45242309570312500000 0.60049647092819213867 0.05115461349487299830
0.47647914290428161621 0.58034849166870117188 0.01532883755862710085
0.48282042145729059390 0.58390760421752929688 0.01073985546827310039
0.49099987745285028629 0.58345496654510498047 0.00746564473956819966
0.49859723448753351382 0.58045858144760131836 0.00593351433053610020
0.50453710556030273438 0.57666337490081787109 0.00542789651080960011
0.50869143009185791016 0.57287281751632690430 0.00497870100662109981
0.45293092727661127261 0.60360878705978393555 0.07656124979257579455
0.50797867774963378906 0.63544142246246337891 -0.01484782248735420050
0.51435893774032592773 0.59602296352386474609 -0.01943987607955929842
0.51479130983352661133 0.62715309858322143555 -0.03049015440046779976
0.51842719316482543945 0.63308292627334594727 -0.02843337506055829828
0.51520210504531860352 0.62952858209609985352 -0.02737943641841409856
0.50993204116821289062 0.63913905620574951172 -0.01300188805907960023
0.51943314075469970703 0.63393723964691162109 -0.03028240241110320002
0.52038049697875976562 0.63705575466156005859 -0.02281914837658400100
0.50814604759216308594 0.56398481130599975586 0.00875095650553700012
0.51183080673217773438 0.56628984212875366211 0.00435019191354509959
0.51415145397186279297 0.56797009706497192383 -0.00062914373120289996
0.48032519221305841617 0.55605018138885498047 0.01446106098592279954
0.47552686929702758789 0.55175817012786865234 0.01492739189416169947
0.52962124347686767578 0.58927488327026367188 -0.02489374205470079940
0.57018941640853881836 0.56036502122879028320 0.00901617947965860020
0.53044223785400390625 0.63492649793624877930 -0.02334659174084659922
0.59805905818939208984 0.51869761943817138672 0.04240845516324039804
0.55370497703552246094 0.57060617208480834961 0.00283760577440260019
0.55970185995101928711 0.57138150930404663086 0.00285506760701530020
0.56563651561737060547 0.57096028327941894531 0.00437837047502389991
0.57333886623382568359 0.56479316949844360352 0.00958653166890140011
0.54852825403213500977 0.56809234619140625000 0.00402784859761590001
0.56177788972854614258 0.53565520048141479492 0.00097273418214170000
0.55470693111419677734 0.53688865900039672852 0.00154215551447119993
0.56847667694091796875 0.53805768489837646484 0.00266438024118539982
0.57281750440597534180 0.54322320222854614258 0.00501225842162959963
0.57972908020019531250 0.57251006364822387695 0.01227444596588610042
0.55094248056411743164 0.73839294910430908203 -0.00643710978329180023
0.57242250442504882812 0.55732291936874389648 0.01111306250095359972
0.60206365585327148438 0.57157558202743530273 0.04108412936329840226
0.58732467889785766602 0.56390482187271118164 0.01899455860257140069
0.55724006891250610352 0.62153458595275878906 -0.00600456586107610008
0.53158074617385864258 0.67157977819442749023 -0.02089110016822810084
0.53125429153442382812 0.68460708856582641602 -0.01836911961436269933
0.53883987665176391602 0.67639261484146118164 -0.01794921234250059991
0.54382151365280151367 0.68185198307037353516 -0.01417226437479249951
0.53680545091629028320 0.68526470661163330078 -0.01650894805788990019
0.54136192798614501953 0.68685162067413330078 -0.01279620174318549936
0.55368077754974365234 0.70028567314147949219 -0.00602126726880659966
0.52949208021163940430 0.62791484594345092773 -0.03459656238555899876
0.53010177612304687500 0.61601370573043823242 -0.03625965118408199656
0.58172726631164550781 0.53393679857254028320 0.00734538445249189979
0.54418033361434936523 0.59065711498260498047 -0.00480424799025049986
0.54435348510742187500 0.62628757953643798828 -0.01929202675819390034
0.54488968849182128906 0.62011241912841796875 -0.01713333278894419928
0.57756471633911132812 0.62151652574539184570 0.00087329355301330000
0.52985471487045288086 0.60152834653854370117 -0.03176964819431300074
0.56598335504531860352 0.52057927846908569336 -0.00275049824267619997
0.57505345344543457031 0.52494245767593383789 0.00171229825355109994
0.59040093421936035156 0.49589669704437250308 0.03062400780618190071
0.53821593523025512695 0.53051710128784179688 -0.00704393861815329984
0.54871094226837158203 0.54247504472732543945 0.00375375268049529982
0.55814343690872192383 0.68924975395202636719 -0.00426235375925889965
0.59800833463668823242 0.69051039218902587891 0.05311415717005729675
0.53955483436584472656 0.63310950994491577148 -0.01662631891667840089
0.53455305099487304688 0.63673073053359985352 -0.01731211505830279954
0.55007374286651611328 0.69091016054153442383 -0.00498839840292929996
0.54862296581268310547 0.69066399335861206055 -0.00666405633091919983
0.57852888107299804688 0.51765418052673339844 0.00533959083259099958
0.54474961757659912109 0.63232290744781494141 -0.01591427437961100144
0.55407452583312988281 0.52117615938186645508 -0.00567388348281379958
0.55482345819473266602 0.51199227571487426758 -0.00648310175165530030
0.56154638528823852539 0.46686494350433349609 0.00766785489395260030
0.58501350879669189453 0.50627589225769042969 0.01595471240580079858
0.55757147073745727539 0.48863518238067621402 0.00014583063602910000
0.58594191074371337891 0.52886480093002319336 0.01331585738807910049
0.59271979331970214844 0.52462822198867797852 0.02663711644709109913
0.53155976533889770508 0.67879569530487060547 -0.02047943323850629979
0.53781461715698242188 0.68123948574066162109 -0.01766734756529330166
0.54264181852340698242 0.68441528081893920898 -0.01411471329629420020
0.53805422782897949219 0.63548809289932250977 -0.01533900946378700079
0.54931104183197021484 0.69082814455032348633 -0.00586771359667179974
0.54662597179412841797 0.69262784719467163086 -0.00979583617299789947
0.54778832197189331055 0.69049566984176635742 -0.00681001134216779967
0.53654217720031738281 0.62820416688919067383 -0.02549046277999869950
0.54050928354263305664 0.68835526704788208008 -0.01157565508037800006
0.53606033325195312500 0.68774551153182983398 -0.01379274949431410005
0.53095299005508422852 0.68807679414749145508 -0.01545872725546360016
0.53415203094482421875 0.71870142221450805664 -0.01133927516639230033
0.53337478637695312500 0.70910108089447021484 -0.01748944632709020092
0.53269404172897338867 0.70104938745498657227 -0.01818773336708540134
0.53191578388214111328 0.69367313385009765625 -0.01655009388923640162
0.53100544214248657227 0.68795412778854370117 -0.01550314854830499994
0.54055345058441162109 0.68844419717788696289 -0.01153580285608759963
0.54199630022048950195 0.69126331806182861328 -0.01261330023407930025
0.54348480701446533203 0.69492423534393310547 -0.01386869046837090058
0.54478472471237182617 0.69927352666854858398 -0.01301380805671210027
0.55086505413055419922 0.66594964265823364258 -0.01154704485088580042
0.60453218221664428711 0.62917107343673706055 0.06618747115135190096
0.54400068521499633789 0.68934482336044311523 -0.00882464274764059933
0.54528009891510009766 0.69089519977569580078 -0.00961091183125969972
0.53269129991531372070 0.64148157835006713867 -0.01792887598276129979
0.54256862401962280273 0.64004993438720703125 -0.01132737658917900084
0.53358155488967895508 0.63917571306228637695 -0.01771599613130089845
0.55118548870086669922 0.59815311431884765625 -0.00339622539468099980
0.56198400259017944336 0.60659134387969970703 -0.00245227850973599995
0.54610824584960937500 0.62615400552749633789 -0.01369944773614399994
0.57878786325454711914 0.47803217172622680664 0.01808382198214529904
0.57385528087615966797 0.49373906850814819336 0.00737758167088030034
0.56806629896163940430 0.51155704259872436523 -0.00101273006293919996
0.54887366294860839844 0.70735764503479003906 -0.00888644903898229942
0.53968197107315063477 0.51491248607635498047 -0.00896950531750909975
0.54145264625549316406 0.48836678266525268555 -0.00363642303273080001
0.54377681016921997070 0.46228757500648498535 0.00210317340679460002
0.57056969404220581055 0.56896018981933593750 0.00702432775869960002
0.58743977546691894531 0.58094263076782226562 0.01519366167485709969
0.54495358467102050781 0.56549990177154541016 0.00531120458617800016
0.57949149608612060547 0.54909217357635498047 0.01030578836798659928
0.53945678472518920898 0.58231240510940551758 -0.00661576958373180039
0.54036986827850341797 0.62101989984512329102 -0.02525265142321580017
0.59574753046035766602 0.59299302101135253906 0.02148455381393429842
0.58274352550506591797 0.58961683511734008789 0.00891689117997880067
0.57410919666290283203 0.59406006336212158203 0.00307877291925250009
0.56144070625305175781 0.59197330474853515625 0.00090852600988000002
0.55244404077529907227 0.58691704273223876953 0.00023956548830020001
0.54566472768783569336 0.58158963918685913086 -0.00078271928941829995
0.53059041500091552734 0.56593215465545654297 -0.01191289816051720012
0.59458780288696289062 0.61909502744674682617 0.01823345571756360139
0.58503419160842895508 0.54757821559906005859 0.01345337182283399928
0.52760326862335205078 0.63435590267181396484 -0.03166086971759789898
0.54330450296401977539 0.60218608379364013672 -0.00804064329713580044
0.60495388507843017578 0.57305759191513061523 0.06421564519405359439
0.54041081666946411133 0.57541960477828979492 -0.00109977403189980005
0.54682451486587524414 0.62750571966171264648 -0.00723452586680650017
0.57568883895874023438 0.55774116516113281250 0.01215571537613860040
0.54068636894226074219 0.61364138126373291016 -0.02248459123075000066
0.60264176130294799805 0.65934532880783081055 0.06155650690197939784
0.54477393627166748047 0.56135290861129760742 0.00722843455150719988
0.53535437583923339844 0.60616654157638549805 -0.02833485789597029944
0.58131909370422363281 0.71532052755355834961 0.01671384461224070112
0.58251690864562988281 0.73107528686523437500 0.02845501154661169915
0.60258740186691284180 0.62433391809463500977 0.04158722236752510071
0.58993309736251831055 0.69978427886962890625 0.02531390078365799989
0.59759938716888427734 0.54626131057739257812 0.03591346368193620159
0.55314975976943969727 0.75115525722503662109 -0.00341507070697839995
0.52711254358291625977 0.63744205236434936523 -0.02320217713713640037
0.54927432537078857422 0.61171263456344604492 -0.00634077750146379987
0.59379845857620239258 0.56621623039245605469 0.02531568892300119916
0.56455928087234497070 0.56393253803253173828 0.00528587214648719959
0.55963516235351562500 0.56476223468780517578 0.00393482157960530019
0.54792743921279907227 0.69479739665985107422 -0.00888343621045349988
0.59347730875015258789 0.64425510168075561523 0.01897660456597800166
0.54123461246490478516 0.76756840944290161133 -0.00124960450921199990
0.56247216463088989258 0.75427651405334472656 0.01115322113037100007
0.57188647985458374023 0.74512058496475219727 0.01860186643898480152
0.55471640825271606445 0.56420439481735229492 0.00405042478814719980
0.54993385076522827148 0.56285482645034790039 0.00532806012779470008
0.54661661386489868164 0.56227320432662963867 0.00696942396461960011
0.59020483493804931641 0.54506945610046386719 0.02013283409178250050
0.54991573095321655273 0.55157649517059326172 0.00470113847404709986
0.55505859851837158203 0.54754537343978881836 0.00330606149509539990
0.56046211719512939453 0.54707407951354980469 0.00328014581464230017
0.56576299667358398438 0.54925453662872314453 0.00447203032672400039
0.56899607181549072266 0.55248010158538818359 0.00634555425494900006
0.60248959064483642578 0.54306733608245849609 0.05497609451413149745
0.56782716512680053711 0.56227904558181762695 0.00724371708929529966
0.54489040374755859375 0.65798139572143554688 -0.01366384793072930072
0.53954160213470458984 0.63073343038558959961 -0.01893651299178599964
0.53323692083358764648 0.65264850854873657227 -0.01831528916954990038
0.57217186689376831055 0.73011255264282226562 0.01007095444947479941
0.56309151649475097656 0.74097681045532226562 0.00362136261537670005
0.54098498821258544922 0.75852435827255249023 -0.00927894935011860066
0.59084481000900268555 0.71438241004943847656 0.04116393998265260173
0.54634273052215576172 0.55757343769073486328 0.00616864021867510014
0.53469353914260864258 0.58457010984420776367 -0.01522021461278199976
0.55252528190612792969 0.76199197769165039062 0.00348623213358220012
0.60072100162506103516 0.65201079845428466797 0.03920530527830119738
0.53612548112869262695 0.68775576353073120117 -0.01376200746744869925
0.53757011890411376953 0.69227659702301025391 -0.01497346442192789943
0.53879529237747192383 0.69795513153076171875 -0.01639180257916450154
0.53984671831130981445 0.70498216152191162109 -0.01579771377146239886
0.54237055778503417969 0.71379458904266357422 -0.01122645195573560017
0.54517585039138793945 0.68861073255538940430 -0.00951171386986970034
0.54642772674560546875 0.68764913082122802734 -0.00970479380339379916
0.54754817485809326172 0.68638831377029418945 -0.00971266441047190059
0.55547082424163818359 0.67671364545822143555 -0.00811778567731379942
0.58324903249740600586 0.64910072088241577148 0.00604586023837319977
0.53488248586654663086 0.57315319776535034180 -0.00873326603323219992
0.53957474231719970703 0.55155611038208007812 0.00336748454719780011
0.54374027252197265625 0.55305922031402587891 0.00535172829404470009
0.54396229982376098633 0.68932259082794189453 -0.00879232399165629994
0.58504122495651245117 0.68011617660522460938 0.01412559766322370007
0.53315985202789306641 0.55107390880584716797 -0.00464948406442990039
0.54695683717727661133 0.72595411539077758789 -0.00823769439011809955
0.53017014265060424805 0.57802486419677734375 -0.01893944293260569831
0.53905367851257324219 0.60379314422607421875 -0.01617211103439330014
0.53672373294830322266 0.73151141405105590820 -0.01125755161046980077
0.56153118610382080078 0.70573526620864868164 -0.00248036044649769995
0.55229014158248901367 0.63776224851608276367 -0.00651683425530789982
0.55504375696182250977 0.71765685081481933594 -0.00533177005127069992
0.56764775514602661133 0.63639801740646362305 -0.00481606507673849969
0.55831843614578247070 0.65043938159942626953 -0.00683951564133159981
0.57350367307662963867 0.65728998184204101562 -0.00124991545453660008
0.53943949937820434570 0.74600392580032348633 -0.01192827615886920059
0.54306709766387939453 0.61121118068695068359 -0.01209914684295649960
0.56865006685256958008 0.71538466215133666992 0.00319148297421629991
0.55998367071151733398 0.72780460119247436523 -0.00096684164600440001
0.56624984741210937500 0.69093430042266845703 -0.00133032491430640004
0.59198886156082153320 0.66578108072280883789 0.02032764069736000059
0.57598131895065307617 0.69302594661712646484 0.00500377081334589958
0.59726929664611816406 0.67737358808517456055 0.03492206335067740003
0.56334340572357177734 0.66764193773269653320 -0.00516036292538039985
0.53883081674575805664 0.59316015243530273438 -0.01135514397174119949
0.53842973709106445312 0.62612086534500122070 -0.02671810798346990062
0.54232829809188842773 0.63004732131958007812 -0.02000898681581020008
0.53558754920959472656 0.61786085367202758789 -0.03098996356129640056
0.54422873258590698242 0.53961378335952758789 0.00132195395417510010
0.55427449941635131836 0.53154718875885009766 -0.00031921462505119999
0.56334012746810913086 0.53030389547348022461 -0.00054623145842919998
0.57098287343978881836 0.53313213586807250977 0.00152430904563510003
0.57641988992691040039 0.53928053379058837891 0.00517747877165669959
0.58073616027832031250 0.56066304445266723633 0.01455455832183360013
0.60329711437225341797 0.59759891033172607422 0.04153133183717720028
0.57608765363693237305 0.57764053344726562500 0.00882706139236679940
0.56953769922256469727 0.58098053932189941406 0.00508236140012739961
0.56094878911972045898 0.58078920841217041016 0.00279689207673069996
0.55298161506652832031 0.57806682586669921875 0.00221332209184760004
0.54685038328170776367 0.57447171211242675781 0.00258265645243219979
0.54247438907623291016 0.57081431150436401367 0.00262928986921900009
0.60510957241058349609 0.60107713937759399414 0.06753883510828009862
0.54225283861160278320 0.63377666473388671875 -0.01686803996562950131
0.53455972671508789062 0.59511780738830566406 -0.02084495313465590041
0.53398317098617553711 0.62635445594787597656 -0.03162056580185890198
0.53078025579452514648 0.63263744115829467773 -0.02908649854362009915
0.53403991460800170898 0.62869000434875488281 -0.02850589156150809891
0.54053175449371337891 0.63772463798522949219 -0.01467579975724219929
0.52956694364547729492 0.63357639312744140625 -0.03080662153661250027
0.52905899286270141602 0.63667893409729003906 -0.02326057478785509974
0.54253524541854858398 0.56171542406082153320 0.00640951562672850000
0.53888732194900512695 0.56428128480911254883 0.00251260469667609994
0.53633385896682739258 0.56626236438751220703 -0.00212924857623869980
0.57088679075241088867 0.55503553152084350586 0.00839680060744280032
0.57563656568527221680 0.54950153827667236328 0.00855194590985769963
0.49309653043746948242 0.55659204721450805664 0.01063510496169320016
0.49877479672431940250 0.55642175674438476562 0.01063510496169320016
0.49283432960510248355 0.54737222194671630859 0.01063510496169320016
0.48730179667472839355 0.55667579174041748047 0.01063510496169320016
0.49330347776412958316 0.56591016054153442383 0.01063510496169320016
0.55743020772933959961 0.55357861518859863281 0.00605252292007199977
0.56359297037124633789 0.55334198474884033203 0.00605252292007199977
0.55732703208923339844 0.54403537511825561523 0.00605252292007199977
0.55141431093215942383 0.55367755889892578125 0.00605252292007199977
0.55761289596557617188 0.56318199634552001953 0.00605252292007199977
